-0.11271 -0.61559 -2.12667
0.02426 -0.59089 -1.37434
-0.11190 -0.73684 -2.11138
0.02446 -0.75926 -1.38567
-0.11102 -0.86124 -2.09480
0.02441 -0.70071 -1.38298
-0.07320 -0.70071 -1.38126
-0.07301 -0.64451 -1.37751
-0.07347 -0.88261 -1.38635
-0.07344 -0.81994 -1.38562
0.02450 -0.88261 -1.38808
-0.11007 -0.98885 -2.07686
0.02450 -0.94713 -1.38791
0.02448 -1.01339 -1.38688
-0.10904 -1.11971 -2.05746
-0.07317 -1.15078 -1.38064
-0.10793 -1.25381 -2.03651
0.02445 -1.08129 -1.38502
-0.07331 -1.08129 -1.38330
-0.07341 -1.01339 -1.38515
0.02440 -1.15078 -1.38236
-0.07299 -1.22181 -1.37721
0.02434 -1.22181 -1.37892
-0.10673 -1.39111 -2.01392
-0.10544 -1.53150 -1.98957
-0.07277 -1.29435 -1.37302
-0.07187 -1.52084 -1.35601
-0.10405 -1.67479 -1.96335
-0.07221 -1.44386 -1.36241
-0.07149 -1.59932 -1.34888
-0.07107 -1.67931 -1.34102
0.02384 -1.59932 -1.35056
-0.10256 -1.82070 -1.93515
0.02355 -1.76085 -1.33408
-0.07012 -1.84398 -1.32306
0.02338 -1.84398 -1.32471
0.02320 -1.92873 -1.31457
-0.06958 -1.92873 -1.31293
-0.06900 -2.01514 -1.30202
0.02301 -2.01514 -1.30364
-0.06838 -2.10327 -1.29030
-0.06772 -2.19316 -1.27774
0.02258 -2.19316 -1.27933
0.02234 -2.28486 -1.26589
-0.06544 -2.47384 -1.23471
0.02123 -2.67050 -1.20268
-0.06269 -2.77174 -1.18283
0.02090 -2.77174 -1.18430
-0.06056 -2.97998 -1.14268
0.02020 -2.97998 -1.14410
-0.05549 -3.41705 -1.04710
0.01896 -3.30559 -1.07438
0.01851 -3.41705 -1.04840
0.01802 -3.52953 -1.02097
-0.05404 -3.52953 -1.01970
-0.03978 3.26084 -0.50268
-0.04278 3.18303 -0.54054
-0.04543 3.10419 -0.57406
-0.04778 3.02436 -0.60371
-0.04985 2.94356 -0.62987
-0.05167 2.86178 -0.65288
-0.05465 2.69508 -0.69053
-0.05327 2.77898 -0.67302
-0.05584 2.61001 -0.70561
-0.05686 2.52365 -0.71840
-0.05770 2.43589 -0.72906
-0.05838 2.34657 -0.73769
-0.05891 2.25553 -0.74437
-0.05929 2.16259 -0.74916
-0.05921 1.71494 -0.74820
-0.05937 1.76749 -0.75013
-0.05948 1.81925 -0.75160
-0.05956 1.87027 -0.75261
-0.05962 1.97020 -0.75327
-0.05953 2.06756 -0.75212
-0.05903 1.66157 -0.74580
-0.27049 1.75454 -2.17826
-0.26916 1.81019 -2.16757
-0.05321 3.48661 -0.35400
-0.25431 2.06537 -2.04794
-0.04395 3.55849 -0.29243
-0.25970 2.02291 -2.09136
-0.26411 1.95312 -2.12685
-0.26767 1.86214 -2.15551
-0.27166 1.69558 -2.18767
-0.05880 1.60732 -0.74293
-0.27268 1.63363 -2.19589
-0.05853 1.55217 -0.73958
-0.27356 1.56894 -2.20298
-0.27431 1.50175 -2.20901
-0.05823 1.49604 -0.73573
-0.27493 1.43223 -2.21404
-0.05788 1.43891 -0.73138
-0.27544 1.36053 -2.21811
-0.05750 1.38070 -0.72651
-0.27584 1.28675 -2.22129
-0.05707 1.32138 -0.72112
-0.27612 1.21100 -2.22359
-0.27630 1.13333 -2.22505
-0.05660 1.26086 -0.71518
-0.05609 1.19911 -0.70868
-0.27638 1.05379 -2.22570
-0.05553 1.13604 -0.70160
-0.27637 0.97239 -2.22556
-0.05426 1.00566 -0.68561
-0.05492 1.07158 -0.69392
-0.27625 0.88914 -2.22464
-0.05355 0.93820 -0.67665
-0.27604 0.80404 -2.22295
-0.05279 0.86912 -0.66702
-0.27574 0.71704 -2.22051
-0.05197 0.79831 -0.65668
-0.27534 0.62813 -2.21730
-0.05110 0.72569 -0.64561
-0.27485 0.53724 -2.21333
-0.05016 0.65115 -0.63376
-0.27426 0.44432 -2.20859
-0.27357 0.34929 -2.20307
-0.15817 -0.29997 -1.27375
-0.27279 0.25209 -2.19674
-0.27190 0.15261 -2.18958
-0.27091 0.05077 -2.18158
-0.16033 -0.31803 -1.29112
-0.26980 -0.05352 -2.17269
-0.26858 -0.16039 -2.16287
-0.26724 -0.26992 -2.15209
-0.26578 -0.38223 -2.14030
-0.16665 -0.44853 -1.34199
-0.26418 -0.49742 -2.12743
-0.07157 -0.44853 -1.35040
-0.16864 -0.54013 -1.35804
-0.26244 -0.61559 -2.11343
-0.16999 -0.64451 -1.36893
-0.16939 -0.59089 -1.36408
-0.07275 -0.59089 -1.37263
-0.26055 -0.73684 -2.09823
-0.17078 -0.75926 -1.37532
-0.25851 -0.86124 -2.08175
-0.07335 -0.75926 -1.38394
-0.17108 -0.88261 -1.37772
-0.25629 -0.98885 -2.06392
-0.17099 -0.81994 -1.37699
-0.17093 -1.01339 -1.37653
-0.25390 -1.11971 -2.04464
-0.17106 -0.94713 -1.37755
-0.07347 -0.94713 -1.38618
-0.25132 -1.25381 -2.02383
-0.16995 -1.22181 -1.36863
-0.17038 -1.15078 -1.37204
-0.24853 -1.39111 -2.00137
-0.07251 -1.36837 -1.36808
-0.24552 -1.53150 -1.97717
-0.16734 -1.52084 -1.34757
-0.24229 -1.67479 -1.95112
-0.16646 -1.59932 -1.34048
-0.23881 -1.82070 -1.92310
-0.13242 -3.30559 -1.06636
-0.05687 -3.30559 -1.07304
-0.05817 -3.19546 -1.09759
-0.14356 -2.87492 -1.15610
-0.06166 -2.87492 -1.16334
-0.14823 -2.67050 -1.19370
-0.06366 -2.67050 -1.20118
-0.06458 -2.57120 -1.21846
-0.15768 -2.19316 -1.26978
-0.06701 -2.28486 -1.26431
-0.16068 -2.01514 -1.29391
-0.16202 -1.92873 -1.30475
-0.16327 -1.84398 -1.31482
-0.07061 -1.76085 -1.33241
-0.16443 -1.76085 -1.32411
-0.06625 -2.37841 -1.24998
-0.15237 -2.47384 -1.22702
-0.13831 -3.08687 -1.11380
-0.05940 -3.08687 -1.12078
-0.12584 -3.52953 -1.01335
-0.05251 -3.64263 -0.99081
-0.41348 1.95312 -2.10292
-0.12371 2.77898 -0.66370
-0.12001 2.86178 -0.64383
-0.11578 2.94356 -0.62114
-0.11097 3.02436 -0.59534
-0.10552 3.10419 -0.56611
-0.09936 3.18303 -0.53305
-0.09240 3.26084 -0.49571
-0.10040 3.33749 -0.45029
-0.08985 3.41283 -0.40297
-0.12970 2.61001 -0.69583
-0.12693 2.69508 -0.68096
-0.13205 2.52365 -0.70845
-0.10870 2.43589 -0.72322
-0.11221 1.87027 -0.74658
-0.11231 1.97020 -0.74723
-0.11214 2.06756 -0.74609
-0.11170 2.16259 -0.74316
-0.11098 2.25553 -0.73840
-0.10998 2.34657 -0.73177
-0.11206 1.81925 -0.74557
-0.11184 1.76749 -0.74412
-0.11155 1.71494 -0.74220
-0.11120 1.66157 -0.73983
-0.04044 3.66171 -0.18138
-0.39814 2.06537 -2.02490
-0.42139 1.81019 -2.14318
-0.40658 2.02291 -2.06783
-0.41905 1.86214 -2.13126
-0.42347 1.75454 -2.15376
-0.42530 1.69558 -2.16306
-0.11077 1.60732 -0.73698
-0.42690 1.63363 -2.17118
-0.11027 1.55217 -0.73365
-0.42828 1.56894 -2.17819
-0.10969 1.49604 -0.72983
-0.42945 1.50175 -2.18415
-0.43043 1.43223 -2.18913
-0.43122 1.36053 -2.19316
-0.10904 1.43891 -0.72552
-0.10832 1.38070 -0.72069
-0.43184 1.28675 -2.19630
-0.13255 1.32138 -0.71113
-0.43228 1.21100 -2.19857
-0.13146 1.26086 -0.70527
-0.43257 1.13333 -2.20002
-0.13027 1.19911 -0.69886
-0.43269 1.05379 -2.20066
-0.12896 1.13604 -0.69188
-0.43267 0.97239 -2.20052
-0.12603 1.00566 -0.67611
-0.43249 0.88914 -2.19961
-0.12755 1.07158 -0.68430
-0.12438 0.93820 -0.66728
-0.43216 0.80404 -2.19795
-0.12261 0.86912 -0.65778
-0.43168 0.71704 -2.19553
-0.12071 0.79831 -0.64758
-0.43106 0.62813 -2.19236
-0.11867 0.72569 -0.63666
-0.43029 0.53724 -2.18843
-0.11649 0.65115 -0.62497
-0.42937 0.44432 -2.18374
-0.42829 0.34929 -2.17828
-0.42706 0.25209 -2.17202
-0.42567 0.15261 -2.16495
-0.24763 -0.29997 -1.25942
-0.42412 0.05077 -2.15704
-0.42239 -0.05352 -2.14824
-0.42048 -0.16039 -2.13854
-0.25662 -0.37302 -1.30515
-0.41838 -0.26992 -2.12788
-0.16392 -0.37302 -1.32000
-0.41609 -0.38223 -2.11622
-0.41359 -0.49742 -2.10349
-0.41087 -0.61559 -2.08965
-0.40791 -0.73684 -2.07462
-0.26519 -0.59089 -1.34874
-0.26685 -0.70071 -1.35721
-0.17045 -0.70071 -1.37265
-0.40471 -0.86124 -2.05833
-0.26770 -0.81994 -1.36150
-0.26784 -0.88261 -1.36222
-0.40124 -0.98885 -2.04070
-0.39749 -1.11971 -2.02164
-0.17071 -1.08129 -1.37468
-0.39345 -1.25381 -2.00106
-0.38908 -1.39111 -1.97886
-0.16883 -1.36837 -1.35956
-0.38438 -1.53150 -1.95493
-0.26526 -1.29435 -1.34911
-0.26607 -1.22181 -1.35323
-0.16944 -1.29435 -1.36446
-0.37931 -1.67479 -1.92917
-0.26321 -1.44386 -1.33869
-0.16813 -1.44386 -1.35392
-0.25908 -1.67931 -1.31767
-0.26060 -1.59932 -1.32540
-0.37387 -1.82070 -1.90146
-0.16549 -1.67931 -1.33266
-0.20230 -3.41705 -1.02887
-0.12922 -3.41705 -1.04057
-0.22076 -2.97998 -1.12279
-0.14101 -2.97998 -1.13556
-0.24149 -2.37841 -1.22822
-0.15425 -2.37841 -1.24219
-0.15602 -2.28486 -1.25643
-0.24426 -2.28486 -1.24230
-0.25742 -1.76085 -1.30922
-0.15923 -2.10327 -1.28226
-0.23540 -2.57120 -1.19725
-0.15036 -2.57120 -1.21087
-0.23206 -2.67050 -1.18027
-0.14597 -2.77174 -1.17546
-0.21653 -3.08687 -1.10127
-0.21205 -3.19546 -1.07848
-0.13545 -3.19546 -1.09075
-0.19700 -3.52953 -1.00195
-0.19142 -3.64263 -0.97356
-0.12227 -3.64263 -0.98464
-0.55143 2.02291 -2.03400
-0.15916 2.43589 -0.71381
-0.16104 2.34657 -0.72225
-0.16250 2.25553 -0.72879
-0.16355 2.16259 -0.73349
-0.16420 2.06756 -0.73639
-0.16445 1.97020 -0.73751
-0.16430 1.87027 -0.73687
-0.16408 1.81925 -0.73588
-0.16376 1.76749 -0.73444
-0.16334 1.71494 -0.73255
-0.16282 1.66157 -0.73020
-0.57434 1.75454 -2.11852
-0.56834 1.86214 -2.09639
-0.06422 3.62802 -0.21553
-0.53998 2.06537 -1.99177
-0.56078 1.95312 -2.06852
-0.57152 1.81019 -2.10812
-0.57682 1.69558 -2.12767
-0.16219 1.60732 -0.72739
-0.57899 1.63363 -2.13566
-0.16146 1.55217 -0.72411
-0.58086 1.56894 -2.14256
-0.16062 1.49604 -0.72034
-0.58245 1.50175 -2.14842
-0.58377 1.43223 -2.15331
-0.15967 1.43891 -0.71608
-0.58485 1.36053 -2.15728
-0.15861 1.38070 -0.71132
-0.58568 1.28675 -2.16036
-0.58629 1.21100 -2.16260
-0.58668 1.13333 -2.16402
-0.58685 1.05379 -2.16466
-0.58681 0.97239 -2.16452
-0.58657 0.88914 -2.16362
-0.58612 0.80404 -2.16199
-0.58548 0.71704 -2.15961
-0.58463 0.62813 -2.15649
-0.58359 0.53724 -2.15263
-0.58234 0.44432 -2.14802
-0.33585 -0.29997 -1.23881
-0.58088 0.34929 -2.14264
-0.57921 0.25209 -2.13649
-0.57733 0.15261 -2.12953
-0.57522 0.05077 -2.12175
-0.25100 -0.31803 -1.27659
-0.57287 -0.05352 -2.11310
-0.34043 -0.31803 -1.25570
-0.57028 -0.16039 -2.10355
-0.34804 -0.37302 -1.28380
-0.56744 -0.26992 -2.09307
-0.56433 -0.38223 -2.08159
-0.26089 -0.44853 -1.32689
-0.56094 -0.49742 -2.06908
-0.26401 -0.54013 -1.34276
-0.55724 -0.61559 -2.05546
-0.35807 -0.54013 -1.32079
-0.35384 -0.44853 -1.30518
-0.26613 -0.64451 -1.35353
-0.55324 -0.73684 -2.04068
-0.36263 -0.75926 -1.33760
-0.26737 -0.75926 -1.35984
-0.54889 -0.86124 -2.02466
-0.54419 -0.98885 -2.00731
-0.36322 -0.94713 -1.33977
-0.26781 -0.94713 -1.36205
-0.26761 -1.01339 -1.36104
-0.53911 -1.11971 -1.98856
-0.36246 -1.08129 -1.33698
-0.26725 -1.08129 -1.35921
-0.26674 -1.15078 -1.35660
-0.36176 -1.15078 -1.33441
-0.53362 -1.25381 -1.96832
-0.52770 -1.39111 -1.94648
-0.26431 -1.36837 -1.34426
-0.52132 -1.53150 -1.92294
-0.35531 -1.52084 -1.31061
-0.51445 -1.67479 -1.89760
-0.26198 -1.52084 -1.33240
-0.35138 -1.67931 -1.29612
-0.50706 -1.82070 -1.87035
-0.30993 -2.77174 -1.14322
-0.31474 -2.67050 -1.16096
-0.22852 -2.77174 -1.16223
-0.32353 -2.47384 -1.19337
-0.23854 -2.47384 -1.21321
-0.33809 -2.10327 -1.24709
-0.34116 -2.01514 -1.25842
-0.25155 -2.01514 -1.27935
-0.24928 -2.10327 -1.26783
-0.24685 -2.19316 -1.25549
-0.34402 -1.92873 -1.26897
-0.25365 -1.92873 -1.29007
-0.25561 -1.84398 -1.30002
-0.22475 -2.87492 -1.14309
-0.30483 -2.87492 -1.12439
-0.28117 -3.30559 -1.03711
-0.20731 -3.30559 -1.05436
-0.27437 -3.41705 -1.01204
-0.25962 -3.64263 -0.95763
-0.09434 3.55849 -0.28027
-0.11420 3.48661 -0.33927
-0.14536 3.41283 -0.38643
-0.16243 3.33749 -0.43181
-0.14399 3.26084 -0.48325
-0.19279 2.77898 -0.64702
-0.18702 2.86178 -0.62765
-0.18043 2.94356 -0.60553
-0.17293 3.02436 -0.58038
-0.16444 3.10419 -0.55188
-0.15484 3.18303 -0.51965
-0.19780 2.69508 -0.66385
-0.20884 2.43589 -0.70089
-0.20579 2.52365 -0.69064
-0.20212 2.61001 -0.67834
-0.21131 2.34657 -0.70918
-0.21322 2.25553 -0.71560
-0.21460 2.16259 -0.72021
-0.21545 2.06756 -0.72306
-0.21577 1.97020 -0.72416
-0.21530 1.81925 -0.72256
-0.21559 1.87027 -0.72353
-0.21488 1.76749 -0.72115
-0.21432 1.71494 -0.71929
-0.21364 1.66157 -0.71698
-0.72235 1.75454 -2.07273
-0.67913 2.06537 -1.94872
-0.70530 1.95312 -2.02381
-0.69353 2.02291 -1.99004
-0.71480 1.86214 -2.05108
-0.71880 1.81019 -2.06256
-0.72547 1.69558 -2.08169
-0.21281 1.60732 -0.71422
-0.72819 1.63363 -2.08950
-0.21185 1.55217 -0.71100
-0.73054 1.56894 -2.09625
-0.21075 1.49604 -0.70730
-0.73254 1.50175 -2.10198
-0.73421 1.43223 -2.10677
-0.20950 1.43891 -0.70312
-0.73556 1.36053 -2.11065
-0.73662 1.28675 -2.11367
-0.20811 1.38070 -0.69844
-0.73738 1.21100 -2.11586
-0.20657 1.32138 -0.69325
-0.20486 1.26086 -0.68754
-0.73786 1.13333 -2.11725
-0.20300 1.19911 -0.68129
-0.73808 1.05379 -2.11787
-0.20097 1.13604 -0.67449
-0.73803 0.97239 -2.11773
-0.19639 1.00566 -0.65912
-0.19877 1.07158 -0.66710
-0.73773 0.88914 -2.11686
-0.19383 0.93820 -0.65051
-0.73717 0.80404 -2.11526
-0.19107 0.86912 -0.64125
-0.73636 0.71704 -2.11293
-0.18811 0.79831 -0.63131
-0.73529 0.62813 -2.10988
-0.18493 0.72569 -0.62066
-0.73398 0.53724 -2.10610
-0.18154 0.65115 -0.60927
-0.73241 0.44432 -2.10159
-0.42240 -0.29997 -1.21204
-0.73057 0.34929 -2.09633
-0.72847 0.25209 -2.09031
-0.72610 0.15261 -2.08350
-0.72345 0.05077 -2.07589
-0.42816 -0.31803 -1.22856
-0.72050 -0.05352 -2.06742
-0.71724 -0.16039 -2.05808
-0.71367 -0.26992 -2.04783
-0.70976 -0.38223 -2.03660
-0.44503 -0.44853 -1.27697
-0.70549 -0.49742 -2.02436
-0.43773 -0.37302 -1.25605
-0.70085 -0.61559 -2.01103
-0.35967 -0.59089 -1.32667
-0.36094 -0.64451 -1.33138
-0.45396 -0.64451 -1.30261
-0.69581 -0.73684 -1.99657
-0.69034 -0.86124 -1.98089
-0.45608 -0.75926 -1.30869
-0.45519 -0.70071 -1.30615
-0.36193 -0.70071 -1.33500
-0.45663 -0.81994 -1.31028
-0.36326 -0.88261 -1.33993
-0.36307 -0.81994 -1.33922
-0.68443 -0.98885 -1.96393
-0.45687 -0.88261 -1.31097
-0.45682 -0.94713 -1.31081
-0.45648 -1.01339 -1.30983
-0.67804 -1.11971 -1.94558
-0.36295 -1.01339 -1.33877
-0.45499 -1.15078 -1.30557
-0.67113 -1.25381 -1.92578
-0.36086 -1.22181 -1.33109
-0.45386 -1.22181 -1.30232
-0.66369 -1.39111 -1.90441
-0.45248 -1.29435 -1.29836
-0.45085 -1.36837 -1.29369
-0.35847 -1.36837 -1.32227
-0.35977 -1.29435 -1.32704
-0.65566 -1.53150 -1.88138
-0.44898 -1.44386 -1.28833
-0.44688 -1.52084 -1.28228
-0.35699 -1.44386 -1.31679
-0.64702 -1.67479 -1.85659
-0.63773 -1.82070 -1.82992
-0.44453 -1.59932 -1.27554
-0.35344 -1.59932 -1.30371
-0.32652 -3.64263 -0.93693
-0.33604 -3.52953 -0.96425
-0.26719 -3.52953 -0.98555
-0.41193 -2.37841 -1.18201
-0.32753 -2.37841 -1.20812
-0.33128 -2.28486 -1.22197
-0.41665 -2.28486 -1.19556
-0.42108 -2.19316 -1.20826
-0.33480 -2.19316 -1.23495
-0.42522 -2.10327 -1.22014
-0.34668 -1.84398 -1.27875
-0.34913 -1.76085 -1.28780
-0.31927 -2.57120 -1.17766
-0.38980 -2.77174 -1.11851
-0.38338 -2.87492 -1.10009
-0.29941 -2.97998 -1.10442
-0.37657 -2.97998 -1.08055
-0.36935 -3.08687 -1.05984
-0.35362 -3.30559 -1.01470
-0.28760 -3.19546 -1.06083
-0.36171 -3.19546 -1.03790
-0.29367 -3.08687 -1.08325
-0.19399 3.26084 -0.46544
-0.20860 3.18303 -0.50050
-0.22154 3.10419 -0.53154
-0.23298 3.02436 -0.55898
-0.25195 2.86178 -0.60452
-0.24307 2.94356 -0.58321
-0.25973 2.77898 -0.62317
-0.26649 2.69508 -0.63938
-0.26564 2.06756 -0.70617
-0.26459 2.16259 -0.70339
-0.26289 2.25553 -0.69888
-0.26054 2.34657 -0.69261
-0.25749 2.43589 -0.68451
-0.27724 2.52365 -0.66519
-0.27230 2.61001 -0.65334
-0.26604 1.97020 -0.70724
-0.26581 1.87027 -0.70662
-0.26493 1.76749 -0.70430
-0.26545 1.81925 -0.70567
-0.26425 1.71494 -0.70248
-0.26340 1.66157 -0.70023
-0.86676 1.75454 -2.01661
-0.83218 2.02291 -1.93616
-0.81490 2.06537 -1.89596
-0.84630 1.95312 -1.96902
-0.85770 1.86214 -1.99555
-0.86250 1.81019 -2.00672
-0.87050 1.69558 -2.02533
-0.26239 1.60732 -0.69754
-0.87377 1.63363 -2.03293
-0.26120 1.55217 -0.69439
-0.87659 1.56894 -2.03949
-0.25984 1.49604 -0.69077
-0.87899 1.50175 -2.04508
-0.88099 1.43223 -2.04973
-0.25831 1.43891 -0.68669
-0.88261 1.36053 -2.05351
-0.25659 1.38070 -0.68212
-0.88388 1.28675 -2.05644
-0.27829 1.32138 -0.66770
-0.88479 1.21100 -2.05857
-0.27600 1.26086 -0.66220
-0.88537 1.13333 -2.05993
-0.27349 1.19911 -0.65618
-0.88563 1.05379 -2.06053
-0.27076 1.13604 -0.64963
-0.88558 0.97239 -2.06040
-0.26459 1.00566 -0.63482
-0.26779 1.07158 -0.64251
-0.88521 0.88914 -2.05955
-0.26113 0.93820 -0.62653
-0.88454 0.80404 -2.05799
-0.25741 0.86912 -0.61761
-0.88357 0.71704 -2.05572
-0.25342 0.79831 -0.60804
-0.88229 0.62813 -2.05276
-0.24915 0.72569 -0.59778
-0.88071 0.53724 -2.04908
-0.24457 0.65115 -0.58681
-0.87882 0.44432 -2.04469
-0.87663 0.34929 -2.03958
-0.87411 0.25209 -2.03372
-0.50684 -0.29997 -1.17922
-0.87126 0.15261 -2.02710
-0.86808 0.05077 -2.01968
-0.86454 -0.05352 -2.01145
-0.51375 -0.31803 -1.19530
-0.86063 -0.16039 -2.00237
-0.52524 -0.37302 -1.22204
-0.85634 -0.26992 -1.99238
-0.85165 -0.38223 -1.98146
-0.53399 -0.44853 -1.24240
-0.84653 -0.49742 -1.96955
-0.45035 -0.54013 -1.29224
-0.84096 -0.61559 -1.95659
-0.83491 -0.73684 -1.94252
-0.54471 -0.64451 -1.26734
-0.54278 -0.59089 -1.26285
-0.45235 -0.59089 -1.29799
-0.54038 -0.54013 -1.25725
-0.54619 -0.70071 -1.27079
-0.82835 -0.86124 -1.92726
-0.54821 -0.88261 -1.27548
-0.82126 -0.98885 -1.91075
-0.81359 -1.11971 -1.89291
-0.45587 -1.08129 -1.30808
-0.54774 -1.01339 -1.27437
-0.80531 -1.25381 -1.87364
-0.79637 -1.39111 -1.85285
-0.54099 -1.36837 -1.25867
-0.54294 -1.29435 -1.26321
-0.78674 -1.53150 -1.83045
-0.77637 -1.67479 -1.80632
-0.53874 -1.44386 -1.25345
-0.44193 -1.67931 -1.26810
-0.76522 -1.82070 -1.78038
-0.46773 -2.77174 -1.08823
-0.39585 -2.67050 -1.13586
-0.47499 -2.67050 -1.10511
-0.48182 -2.57120 -1.12101
-0.40154 -2.57120 -1.15220
-0.40690 -2.47384 -1.16757
-0.48825 -2.47384 -1.13596
-0.49428 -2.37841 -1.15001
-0.53028 -1.67931 -1.23377
-0.43910 -1.76085 -1.25996
-0.52688 -1.76085 -1.22585
-0.52318 -1.84398 -1.21724
-0.51486 -2.01514 -1.19789
-0.42908 -2.01514 -1.23122
-0.43268 -1.92873 -1.24154
-0.51918 -1.92873 -1.20793
-0.43601 -1.84398 -1.25111
-0.50526 -2.19316 -1.17555
-0.34507 -3.41705 -0.99016
-1.00190 1.81019 -1.94088
-0.99633 1.86214 -1.93007
-0.11472 3.62802 -0.19344
-0.14183 3.55849 -0.25949
-0.17169 3.48661 -0.31412
-0.19801 3.41283 -0.36228
-0.22126 3.33749 -0.40483
-0.31499 1.97020 -0.68684
-0.31451 2.06756 -0.68579
-0.31328 2.16259 -0.68309
-0.31127 2.25553 -0.67872
-0.30848 2.34657 -0.67263
-0.30487 2.43589 -0.66476
-0.31472 1.87027 -0.68624
-0.31430 1.81925 -0.68532
-0.31368 1.76749 -0.68398
-0.31288 1.71494 -0.68222
-0.31187 1.66157 -0.68003
-0.08913 3.66171 -0.16307
-0.94661 2.06537 -1.83375
-0.98308 1.95312 -1.90441
-0.96668 2.02291 -1.87263
-1.00685 1.75454 -1.95045
-1.01120 1.69558 -1.95888
-0.31067 1.60732 -0.67741
-1.01499 1.63363 -1.96623
-0.30927 1.55217 -0.67435
-1.01827 1.56894 -1.97258
-0.30766 1.49604 -0.67085
-1.02106 1.50175 -1.97798
-1.02338 1.43223 -1.98248
-0.30584 1.43891 -0.66688
-1.02527 1.36053 -1.98613
-0.30381 1.38070 -0.66244
-1.02673 1.28675 -1.98897
-1.02780 1.21100 -1.99103
-1.02847 1.13333 -1.99234
-1.02877 1.05379 -1.99293
-1.02871 0.97239 -1.99280
-1.02828 0.88914 -1.99197
-1.02751 0.80404 -1.99047
-1.02637 0.71704 -1.98828
-1.02489 0.62813 -1.98541
-1.02306 0.53724 -1.98185
-1.02087 0.44432 -1.97761
-1.01831 0.34929 -1.97266
-0.58876 -0.29997 -1.14053
-1.01539 0.25209 -1.96699
-1.01208 0.15261 -1.96059
-1.00838 0.05077 -1.95342
-0.59679 -0.31803 -1.15609
-1.00427 -0.05352 -1.94546
-0.99973 -0.16039 -1.93667
-0.61014 -0.37302 -1.18195
-0.99475 -0.26992 -1.92702
-0.98930 -0.38223 -1.91645
-0.98335 -0.49742 -1.90493
-0.62030 -0.44853 -1.20164
-0.62772 -0.54013 -1.21601
-0.97688 -0.61559 -1.89240
-0.96985 -0.73684 -1.87878
-0.63275 -0.64451 -1.22576
-0.63051 -0.59089 -1.22142
-0.54726 -0.75926 -1.27325
-0.96224 -0.86124 -1.86403
-0.95400 -0.98885 -1.84806
-0.63648 -0.81994 -1.23298
-0.63571 -0.75926 -1.23148
-0.54792 -0.81994 -1.27480
-0.94508 -1.11971 -1.83080
-0.63626 -1.01339 -1.23256
-0.63674 -0.94713 -1.23348
-0.54814 -0.94713 -1.27532
-0.63541 -1.08129 -1.23091
-0.54700 -1.08129 -1.27266
-0.54595 -1.15078 -1.27022
-0.93546 -1.25381 -1.81217
-0.54459 -1.22181 -1.26706
-0.63261 -1.22181 -1.22549
-0.92508 -1.39111 -1.79206
-0.91390 -1.53150 -1.77039
-0.53621 -1.52084 -1.24756
-0.90185 -1.67479 -1.74706
-0.61599 -1.67931 -1.19329
-0.88890 -1.82070 -1.72197
-0.61960 -1.59932 -1.20029
-0.62288 -1.52084 -1.20663
-0.53339 -1.59932 -1.24100
-0.57417 -2.37841 -1.11228
-0.58076 -2.28486 -1.12503
-0.49995 -2.28486 -1.16319
-0.60309 -1.92873 -1.16830
-0.61204 -1.76085 -1.18563
-0.51023 -2.10327 -1.18710
-0.55176 -2.67050 -1.06886
-0.53438 -2.87492 -1.03519
-0.46003 -2.87492 -1.07030
-0.50417 -3.19546 -0.97667
-0.43402 -3.19546 -1.00980
-0.42432 -3.30559 -0.98722
-0.44319 -3.08687 -1.03114
-0.51482 -3.08687 -0.99731
-0.52489 -2.97998 -1.01680
-0.45185 -2.97998 -1.05129
-0.41406 -3.41705 -0.96335
-0.40322 -3.52953 -0.93815
-0.39180 -3.64263 -0.91157
-0.24184 3.26084 -0.44247
-0.26005 3.18303 -0.47580
-0.27618 3.10419 -0.50531
-0.29044 3.02436 -0.53140
-0.30303 2.94356 -0.55443
-0.32379 2.77898 -0.59242
-0.31410 2.86178 -0.57469
-0.33221 2.69508 -0.60783
-0.33947 2.61001 -0.62110
-0.34562 2.52365 -0.63236
-0.35075 2.43589 -0.64174
-0.36042 2.16259 -0.65944
-0.35811 2.25553 -0.65521
-0.35490 2.34657 -0.64933
-0.36185 2.06756 -0.66204
-0.36240 1.97020 -0.66305
-0.36208 1.87027 -0.66247
-0.36159 1.81925 -0.66158
-0.36089 1.76749 -0.66029
-0.35880 1.66157 -0.65648
-0.35996 1.71494 -0.65859
-1.14192 1.75454 -1.87457
-1.07360 2.06537 -1.76241
-1.09636 2.02291 -1.79978
-1.11497 1.95312 -1.83033
-1.12999 1.86214 -1.85499
-1.13632 1.81019 -1.86537
-1.14686 1.69558 -1.88267
-0.35742 1.60732 -0.65395
-1.15116 1.63363 -1.88974
-0.35581 1.55217 -0.65100
-1.15488 1.56894 -1.89584
-0.35396 1.49604 -0.64761
-1.15804 1.50175 -1.90103
-0.35186 1.43891 -0.64378
-1.16281 1.36053 -1.90886
-1.16068 1.43223 -1.90535
-0.34952 1.38070 -0.63950
-1.16448 1.28675 -1.91159
-0.34693 1.32138 -0.63475
-1.16568 1.21100 -1.91357
-0.34407 1.26086 -0.62952
-1.16645 1.13333 -1.91483
-0.34095 1.19911 -0.62380
-1.16679 1.05379 -1.91539
-0.33754 1.13604 -0.61757
-1.16672 0.97239 -1.91527
-0.33384 1.07158 -0.61081
-0.32985 1.00566 -0.60350
-1.16623 0.88914 -1.91448
-0.32554 0.93820 -0.59561
-1.16535 0.80404 -1.91303
-0.32090 0.86912 -0.58713
-1.16407 0.71704 -1.91093
-0.31593 0.79831 -0.57803
-1.16239 0.62813 -1.90817
-0.31060 0.72569 -0.56828
-0.30490 0.65115 -0.55785
-1.16031 0.53724 -1.90475
-1.15782 0.44432 -1.90067
-1.15492 0.34929 -1.89592
-0.66775 -0.29997 -1.09616
-1.15161 0.25209 -1.89047
-1.14786 0.15261 -1.88431
-1.14366 0.05077 -1.87742
-1.13900 -0.05352 -1.86977
-1.13385 -0.16039 -1.86133
-0.69199 -0.37302 -1.13597
-1.12820 -0.26992 -1.85205
-1.12202 -0.38223 -1.84189
-1.11527 -0.49742 -1.83082
-1.10793 -0.61559 -1.81877
-1.09996 -0.73684 -1.80569
-0.71959 -0.70071 -1.18128
-0.63447 -0.70071 -1.22909
-1.09133 -0.86124 -1.79151
-0.72099 -0.75926 -1.18357
-0.63682 -0.88261 -1.23363
-1.08198 -0.98885 -1.77617
-0.72162 -1.01339 -1.18461
-1.07187 -1.11971 -1.75958
-0.72216 -0.94713 -1.18549
-0.63419 -1.15078 -1.22854
-1.06096 -1.25381 -1.74166
-0.71927 -1.15078 -1.18075
-1.04919 -1.39111 -1.72234
-0.71530 -1.29435 -1.17423
-0.63069 -1.29435 -1.22176
-0.71273 -1.36837 -1.17001
-1.03650 -1.53150 -1.70151
-0.62842 -1.36837 -1.21737
-0.62582 -1.44386 -1.21232
-1.02284 -1.67479 -1.67909
-0.69863 -1.67931 -1.14687
-1.00815 -1.82070 -1.65498
-0.63478 -2.57120 -1.04205
-0.55969 -2.57120 -1.08423
-0.64325 -2.47384 -1.05595
-0.56716 -2.47384 -1.09869
-0.65120 -2.37841 -1.06901
-0.69415 -1.76085 -1.13951
-0.60774 -1.84398 -1.17730
-0.67831 -2.01514 -1.11351
-0.59808 -2.01514 -1.15858
-0.67221 -2.10327 -1.10349
-0.59269 -2.10327 -1.14815
-0.58692 -2.19316 -1.13698
-0.58389 -3.08687 -0.95851
-0.57181 -3.19546 -0.93868
-0.55902 -3.30559 -0.91769
-0.49290 -3.30559 -0.95483
-0.48098 -3.41705 -0.93175
-0.54551 -3.41705 -0.89550
-0.53123 -3.52953 -0.87207
-0.46840 -3.52953 -0.90737
-0.51618 -3.64263 -0.84736
-0.45512 -3.64263 -0.88166
-0.54333 -2.77174 -1.05252
-0.24676 3.41283 -0.33101
-0.34469 3.02436 -0.49793
-0.32776 3.10419 -0.47348
-0.30862 3.18303 -0.44583
-0.28701 3.26084 -0.41460
-0.27574 3.33749 -0.36988
-0.35963 2.94356 -0.51951
-0.37277 2.86178 -0.53849
-0.41018 2.52365 -0.59253
-0.40287 2.61001 -0.58197
-0.39426 2.69508 -0.56954
-0.38427 2.77898 -0.55510
-0.39490 2.43589 -0.61556
-0.39957 2.34657 -0.62284
-0.40319 2.25553 -0.62848
-0.40739 2.06756 -0.63503
-0.40579 2.16259 -0.63253
-0.40801 1.97020 -0.63600
-0.40766 1.87027 -0.63544
-0.40711 1.81925 -0.63459
-0.40631 1.76749 -0.63335
-0.40397 1.66157 -0.62969
-0.40527 1.71494 -0.63172
-1.27131 1.75454 -1.78935
-1.26507 1.81019 -1.78057
-1.25803 1.86214 -1.77066
-1.24130 1.95312 -1.74712
-1.19525 2.06537 -1.68229
-1.22059 2.02291 -1.71796
-1.27680 1.69558 -1.79708
-0.40241 1.60732 -0.62727
-1.28159 1.63363 -1.80383
-0.40060 1.55217 -0.62444
-1.28573 1.56894 -1.80965
-0.39851 1.49604 -0.62119
-1.28925 1.50175 -1.81460
-1.29219 1.43223 -1.81874
-0.39616 1.43891 -0.61752
-1.29457 1.36053 -1.82209
-0.39352 1.38070 -0.61341
-1.29642 1.28675 -1.82469
-0.41173 1.32138 -0.59477
-1.29776 1.21100 -1.82658
-0.40834 1.26086 -0.58987
-1.29861 1.13333 -1.82778
-0.40462 1.19911 -0.58451
-1.29899 1.05379 -1.82832
-0.40058 1.13604 -0.57867
-1.29891 0.97239 -1.82820
-0.39145 1.00566 -0.56548
-0.39620 1.07158 -0.57233
-1.29837 0.88914 -1.82745
-0.38634 0.93820 -0.55810
-1.29739 0.80404 -1.82606
-0.38084 0.86912 -0.55015
-1.29596 0.71704 -1.82405
-0.37494 0.79831 -0.54163
-1.29409 0.62813 -1.82142
-0.36861 0.72569 -0.53249
-1.29178 0.53724 -1.81816
-0.36185 0.65115 -0.52271
-1.28901 0.44432 -1.81426
-1.28578 0.34929 -1.80973
-0.74340 -0.29997 -1.04633
-1.28209 0.25209 -1.80453
-1.27792 0.15261 -1.79865
-1.27324 0.05077 -1.79207
-0.67685 -0.31803 -1.11111
-0.75354 -0.31803 -1.06060
-1.26805 -0.05352 -1.78477
-1.26233 -0.16039 -1.77671
-1.25603 -0.26992 -1.76785
-1.24915 -0.38223 -1.75816
-0.70352 -0.44853 -1.15489
-0.78323 -0.44853 -1.10239
-1.24164 -0.49742 -1.74759
-0.71193 -0.54013 -1.16870
-0.79260 -0.54013 -1.11557
-1.23347 -0.61559 -1.73609
-0.79895 -0.64451 -1.12452
-0.79612 -0.59089 -1.12054
-0.71764 -0.64451 -1.17807
-0.71510 -0.59089 -1.17390
-1.22460 -0.73684 -1.72360
-1.21498 -0.86124 -1.71007
-0.72187 -0.81994 -1.18501
-0.80366 -0.81994 -1.13114
-0.80408 -0.88261 -1.13173
-1.20457 -0.98885 -1.69542
-0.72225 -0.88261 -1.18563
-1.19332 -1.11971 -1.67959
-0.80339 -1.01339 -1.13076
-0.72066 -1.08129 -1.18302
-0.80231 -1.08129 -1.12924
-1.18117 -1.25381 -1.66249
-0.71748 -1.22181 -1.17781
-0.79878 -1.22181 -1.12427
-0.80077 -1.15078 -1.12707
-1.16807 -1.39111 -1.64404
-0.79635 -1.29435 -1.12085
-0.79349 -1.36837 -1.11682
-1.15394 -1.53150 -1.62416
-0.70978 -1.44386 -1.16516
-0.78648 -1.52084 -1.10697
-0.70644 -1.52084 -1.15969
-1.13874 -1.67479 -1.60276
-0.78235 -1.59932 -1.10115
-0.77779 -1.67931 -1.09473
-1.12238 -1.82070 -1.57974
-0.70273 -1.59932 -1.15359
-0.74108 -2.19316 -1.04307
-0.66566 -2.19316 -1.09274
-0.76150 -1.92873 -1.07180
-0.68400 -1.92873 -1.12284
-0.68927 -1.84398 -1.13150
-0.65867 -2.28486 -1.08126
-0.73330 -2.28486 -1.03211
-0.69668 -2.67050 -0.98057
-0.62578 -2.67050 -1.02727
-0.68604 -2.77174 -0.96559
-0.57467 -3.64263 -0.80884
-0.59142 -3.52953 -0.83242
-0.60731 -3.41705 -0.85479
-0.62236 -3.30559 -0.87597
-0.63660 -3.19546 -0.89600
-0.65005 -3.08687 -0.91494
-0.66275 -2.97998 -0.93281
-0.59530 -2.97998 -0.97724
-0.67474 -2.87492 -0.94968
-0.60607 -2.87492 -0.99491
-0.61622 -2.77174 -1.01157
-0.44228 2.34657 -0.59328
-0.43711 2.43589 -0.58634
-0.44628 2.25553 -0.59865
-0.44916 2.16259 -0.60251
-0.45093 2.06756 -0.60489
-0.45162 1.97020 -0.60581
-0.45123 1.87027 -0.60528
-0.45062 1.81925 -0.60447
-0.44974 1.76749 -0.60329
-0.44858 1.71494 -0.60174
-0.44715 1.66157 -0.59981
-1.39436 1.75454 -1.69522
-0.22390 3.48661 -0.27932
-0.18496 3.55849 -0.23074
-1.31094 2.06537 -1.59379
-1.37979 1.86214 -1.67751
-1.38752 1.81019 -1.68690
-1.36145 1.95312 -1.65520
-1.33873 2.02291 -1.62758
-0.13083 3.66171 -0.13198
-1.40038 1.69558 -1.70254
-0.44542 1.60732 -0.59750
-1.40564 1.63363 -1.70893
-0.44341 1.55217 -0.59480
-1.41018 1.56894 -1.71445
-0.44111 1.49604 -0.59170
-1.41404 1.50175 -1.71914
-1.41726 1.43223 -1.72306
-0.43850 1.43891 -0.58820
-1.41987 1.36053 -1.72623
-0.43558 1.38070 -0.58429
-1.42190 1.28675 -1.72870
-1.42337 1.21100 -1.73049
-1.42431 1.13333 -1.73163
-1.42473 1.05379 -1.73213
-1.42463 0.97239 -1.73202
-1.42405 0.88914 -1.73131
-1.42297 0.80404 -1.73000
-1.42140 0.71704 -1.72809
-1.41935 0.62813 -1.72560
-1.41681 0.53724 -1.72251
-1.41377 0.44432 -1.71882
-0.81536 -0.29997 -0.99129
-1.41024 0.34929 -1.71452
-1.40619 0.25209 -1.70959
-1.40161 0.15261 -1.70403
-1.39648 0.05077 -1.69780
-1.39079 -0.05352 -1.69088
-0.82647 -0.31803 -1.00480
-1.38451 -0.16039 -1.68324
-0.77040 -0.37302 -1.08432
-0.84496 -0.37302 -1.02728
-1.37761 -0.26992 -1.67485
-1.37006 -0.38223 -1.66567
-1.36182 -0.49742 -1.65565
-1.35286 -0.61559 -1.64476
-0.87318 -0.59089 -1.06159
-0.87628 -0.64451 -1.06536
-1.34313 -0.73684 -1.63293
-0.88037 -0.75926 -1.07033
-0.87867 -0.70071 -1.06825
-0.80112 -0.70071 -1.12757
-0.80268 -0.75926 -1.12976
-1.33258 -0.86124 -1.62011
-0.88191 -0.88261 -1.07220
-1.32116 -0.98885 -1.60623
-0.80398 -0.94713 -1.13160
-0.88180 -0.94713 -1.07207
-1.30883 -1.11971 -1.59123
-0.87828 -1.15078 -1.06778
-1.29550 -1.25381 -1.57503
-1.28113 -1.39111 -1.55755
-0.87029 -1.36837 -1.05807
-1.26564 -1.53150 -1.53872
-0.86668 -1.44386 -1.05368
-0.86261 -1.52084 -1.04873
-1.24896 -1.67479 -1.51844
-0.79020 -1.44386 -1.11219
-0.85307 -1.67931 -1.03714
-1.23102 -1.82070 -1.49663
-0.76411 -2.67050 -0.92899
-0.78545 -2.47384 -0.95492
-0.71613 -2.47384 -1.00794
-0.70670 -2.57120 -0.99468
-0.72499 -2.37841 -1.02041
-0.82081 -2.10327 -0.99791
-0.74837 -2.10327 -1.05332
-0.75517 -2.01514 -1.06289
-0.77280 -1.76085 -1.08770
-0.76737 -1.84398 -1.08006
-0.74005 -2.87492 -0.89972
-0.72690 -2.97998 -0.88374
-0.66610 -3.41705 -0.80982
-0.64867 -3.52953 -0.78863
-0.63029 -3.64263 -0.76629
-0.29065 3.41283 -0.29322
-0.32479 3.33749 -0.32765
-0.32900 3.26084 -0.38214
-0.41224 2.94356 -0.47883
-0.39512 3.02436 -0.45894
-0.37572 3.10419 -0.43640
-0.35378 3.18303 -0.41092
-0.42730 2.86178 -0.49632
-0.44049 2.77898 -0.51164
-0.45194 2.69508 -0.52495
-0.46181 2.61001 -0.53641
-0.47018 2.52365 -0.54613
-0.47716 2.43589 -0.55423
-0.48280 2.34657 -0.56079
-0.48718 2.25553 -0.56587
-0.49032 2.16259 -0.56952
-0.49225 2.06756 -0.57177
-0.49300 1.97020 -0.57264
-0.49257 1.87027 -0.57214
-0.49191 1.81925 -0.57137
-0.49095 1.76749 -0.57025
-0.48812 1.66157 -0.56696
-0.48969 1.71494 -0.56879
-1.50305 1.81019 -1.58482
-0.15833 3.62802 -0.15972
-1.42009 2.06537 -1.49735
-1.45020 2.02291 -1.52910
-1.47481 1.95312 -1.55505
-1.49469 1.86214 -1.57600
-1.51047 1.75454 -1.59264
-1.51699 1.69558 -1.59952
-0.48624 1.60732 -0.56478
-0.48404 1.55217 -0.56223
-1.52269 1.63363 -1.60552
-1.52760 1.56894 -1.61071
-0.48152 1.49604 -0.55931
-1.53178 1.50175 -1.61512
-1.53527 1.43223 -1.61879
-1.53810 1.36053 -1.62177
-0.47868 1.43891 -0.55600
-0.47549 1.38070 -0.55230
-1.54030 1.28675 -1.62409
-0.47196 1.32138 -0.54820
-1.54189 1.21100 -1.62577
-0.46808 1.26086 -0.54368
-1.54291 1.13333 -1.62684
-0.46382 1.19911 -0.53874
-1.54336 1.05379 -1.62732
-0.45919 1.13604 -0.53336
-1.54326 0.97239 -1.62722
-0.44872 1.00566 -0.52120
-0.45416 1.07158 -0.52752
-1.54262 0.88914 -1.62654
-0.44286 0.93820 -0.51440
-1.54146 0.80404 -1.62531
-0.43656 0.86912 -0.50707
-1.53976 0.71704 -1.62352
-0.42979 0.79831 -0.49922
-1.53754 0.62813 -1.62118
-0.42254 0.72569 -0.49079
-1.53478 0.53724 -1.61828
-0.41478 0.65115 -0.48178
-1.53150 0.44432 -1.61481
-0.88325 -0.29997 -0.93130
-1.52767 0.34929 -1.61077
-1.52328 0.25209 -1.60615
-1.51832 0.15261 -1.60091
-1.51277 0.05077 -1.59506
-1.50660 -0.05352 -1.58856
-0.89529 -0.31803 -0.94400
-1.49979 -0.16039 -1.58138
-1.49232 -0.26992 -1.57350
-1.48414 -0.38223 -1.56488
-0.91532 -0.37302 -0.96512
-0.93057 -0.44853 -0.98120
-0.85904 -0.44853 -1.04439
-1.47521 -0.49742 -1.55547
-0.86931 -0.54013 -1.05688
-1.46551 -0.61559 -1.54523
-0.94170 -0.54013 -0.99293
-1.45497 -0.73684 -1.53412
-0.95183 -0.70071 -1.00361
-1.44354 -0.86124 -1.52207
-0.95484 -0.81994 -1.00679
-0.88144 -0.81994 -1.07163
-1.43118 -0.98885 -1.50903
-0.95452 -1.01339 -1.00645
-0.88115 -1.01339 -1.07127
-0.95535 -0.88261 -1.00732
-1.41781 -1.11971 -1.49494
-0.95324 -1.08129 -1.00510
-0.87997 -1.08129 -1.06983
-1.40338 -1.25381 -1.47972
-0.94904 -1.22181 -1.00067
-0.95141 -1.15078 -1.00317
-1.38780 -1.39111 -1.46330
-0.87609 -1.22181 -1.06512
-0.87343 -1.29435 -1.06188
-1.37102 -1.53150 -1.44561
-1.35296 -1.67479 -1.42656
-0.92952 -1.59932 -0.98009
-0.93444 -1.52084 -0.98527
-0.92410 -1.67931 -0.97438
-0.85807 -1.59932 -1.04322
-1.33353 -1.82070 -1.40607
-0.91818 -1.76085 -0.96813
-0.86137 -2.37841 -0.90823
-0.87125 -2.28486 -0.91864
-0.79516 -2.37841 -0.96673
-0.80427 -2.28486 -0.97781
-0.88050 -2.19316 -0.92840
-0.81282 -2.19316 -0.98819
-0.88915 -2.10327 -0.93752
-0.89723 -2.01514 -0.94604
-0.82826 -2.01514 -1.00697
-0.83520 -1.92873 -1.01541
-0.90475 -1.92873 -0.95397
-0.91173 -1.84398 -0.96133
-0.84165 -1.84398 -1.02324
-0.84760 -1.76085 -1.03048
-0.85085 -2.47384 -0.89714
-0.77511 -2.57120 -0.94235
-0.83965 -2.57120 -0.88533
-0.75244 -2.77174 -0.91479
-0.71297 -3.08687 -0.86680
-0.69822 -3.19546 -0.84887
-0.68260 -3.30559 -0.82988
-0.36734 3.26084 -0.34544
-0.44117 3.02436 -0.41487
-0.41950 3.10419 -0.39449
-0.39501 3.18303 -0.37146
-0.46029 2.94356 -0.43284
-0.47710 2.86178 -0.44866
-0.52095 2.34657 -0.52554
-0.51486 2.43589 -0.51940
-0.52498 2.52365 -0.49369
-0.51563 2.61001 -0.48489
-0.50462 2.69508 -0.47453
-0.49182 2.77898 -0.46250
-0.52906 2.16259 -0.53372
-0.52567 2.25553 -0.53030
-0.53115 2.06756 -0.53583
-0.53196 1.97020 -0.53665
-0.53149 1.87027 -0.53618
-0.53078 1.81925 -0.53546
-0.52974 1.76749 -0.53441
-0.52838 1.71494 -0.53304
-0.52668 1.66157 -0.53133
-1.61905 1.75454 -1.48212
-1.61110 1.81019 -1.47485
-1.60213 1.86214 -1.46664
-0.26923 3.48661 -0.23593
-1.52218 2.06537 -1.39345
-0.22240 3.55849 -0.19490
-1.58083 1.95312 -1.44714
-1.55445 2.02291 -1.42299
-1.62604 1.69558 -1.48853
-0.52466 1.60732 -0.52928
-1.63215 1.63363 -1.49411
-0.52229 1.55217 -0.52689
-1.63742 1.56894 -1.49894
-0.51957 1.49604 -0.52415
-1.64190 1.50175 -1.50304
-1.64564 1.43223 -1.50646
-0.51650 1.43891 -0.52105
-1.64867 1.36053 -1.50924
-0.51306 1.38070 -0.51758
-1.65102 1.28675 -1.51139
-0.52697 1.32138 -0.49555
-1.65273 1.21100 -1.51296
-0.52263 1.26086 -0.49147
-1.65382 1.13333 -1.51396
-0.51788 1.19911 -0.48701
-1.65430 1.05379 -1.51440
-0.51270 1.13604 -0.48214
-0.50709 1.07158 -0.47686
-0.50102 1.00566 -0.47115
-1.65420 0.97239 -1.51430
-1.65352 0.88914 -1.51368
-0.49448 0.93820 -0.46500
-1.65226 0.80404 -1.51253
-0.48744 0.86912 -0.45838
-1.65044 0.71704 -1.51087
-0.47988 0.79831 -0.45127
-1.64806 0.62813 -1.50869
-0.47179 0.72569 -0.44366
-1.64511 0.53724 -1.50599
-0.46313 0.65115 -0.43552
-1.64159 0.44432 -1.50276
-0.94674 -0.29997 -0.86668
-1.63748 0.34929 -1.49900
-1.63278 0.25209 -1.49469
-1.62746 0.15261 -1.48983
-1.62151 0.05077 -1.48438
-1.61490 -0.05352 -1.47833
-1.60761 -0.16039 -1.47165
-1.59959 -0.26992 -1.46432
-0.98112 -0.37302 -0.89815
-0.95965 -0.31803 -0.87850
-1.59082 -0.38223 -1.45629
-1.58126 -0.49742 -1.44753
-1.57086 -0.61559 -1.43801
-0.94925 -0.64451 -1.00089
-1.55956 -0.73684 -1.42766
-1.01749 -0.64451 -0.93144
-1.01389 -0.59089 -0.92814
-0.94589 -0.59089 -0.99735
-1.00939 -0.54013 -0.92403
-0.95368 -0.75926 -1.00556
-1.02224 -0.75926 -0.93579
-1.54731 -0.86124 -1.41645
-1.53406 -0.98885 -1.40432
-1.51973 -1.11971 -1.39120
-1.02390 -0.94713 -0.93731
-1.02402 -0.88261 -0.93742
-0.95523 -0.94713 -1.00719
-1.50426 -1.25381 -1.37704
-1.48757 -1.39111 -1.36176
-1.01417 -1.29435 -0.92840
-0.94615 -1.29435 -0.99763
-1.01726 -1.22181 -0.93123
-1.01052 -1.36837 -0.92506
-1.46958 -1.53150 -1.34530
-0.94276 -1.36837 -0.99404
-0.93885 -1.44386 -0.98992
-1.00634 -1.44386 -0.92123
-1.00161 -1.52084 -0.91690
-1.45021 -1.67479 -1.32757
-1.42939 -1.82070 -1.30850
-0.85930 -2.87492 -0.78663
-0.87369 -2.77174 -0.79980
-0.80167 -2.87492 -0.84528
-0.81509 -2.77174 -0.85943
-0.82774 -2.67050 -0.87277
-0.88724 -2.67050 -0.81221
-0.91201 -2.47384 -0.83488
-0.92329 -2.37841 -0.84521
-0.93388 -2.28486 -0.85490
-0.95307 -2.10327 -0.87247
-0.96979 -1.92873 -0.88777
-0.78743 -2.97998 -0.83027
-0.84403 -2.97998 -0.77265
-0.82786 -3.08687 -0.75784
-0.77234 -3.08687 -0.81435
-0.81073 -3.19546 -0.74216
-0.75635 -3.19546 -0.79750
-0.73944 -3.30559 -0.77967
-0.79260 -3.30559 -0.72557
-0.77343 -3.41705 -0.70802
-0.72156 -3.41705 -0.76082
-0.75319 -3.52953 -0.68950
-0.70268 -3.52953 -0.74091
-0.73186 -3.64263 -0.66996
-0.68277 -3.64263 -0.71992
-0.36745 3.33749 -0.27898
-0.32883 3.41283 -0.24965
-0.55003 2.43589 -0.48200
-0.55653 2.34657 -0.48771
-0.56157 2.25553 -0.49212
-0.56519 2.16259 -0.49529
-0.56743 2.06756 -0.49725
-0.56829 1.97020 -0.49801
-0.56779 1.87027 -0.49757
-0.56703 1.81925 -0.49691
-0.56592 1.76749 -0.49594
-0.56447 1.71494 -0.49466
-0.56266 1.66157 -0.49307
-1.61668 2.06537 -1.28260
-1.65096 2.02291 -1.30980
-1.67897 1.95312 -1.33203
-1.71112 1.81019 -1.35753
-1.70160 1.86214 -1.34997
-1.71956 1.75454 -1.36423
-1.72699 1.69558 -1.37012
-0.56049 1.60732 -0.49117
-1.73347 1.63363 -1.37526
-0.55796 1.55217 -0.48896
-1.73907 1.56894 -1.37970
-0.55506 1.49604 -0.48641
-1.74383 1.50175 -1.38348
-0.55178 1.43891 -0.48354
-1.75102 1.36053 -1.38918
-1.74780 1.43223 -1.38663
-0.54810 1.38070 -0.48032
-1.75352 1.28675 -1.39117
-1.75534 1.21100 -1.39261
-1.75649 1.13333 -1.39353
-1.75701 1.05379 -1.39393
-1.75689 0.97239 -1.39384
-1.75617 0.88914 -1.39327
-1.75484 0.80404 -1.39221
-1.75291 0.71704 -1.39068
-1.75038 0.62813 -1.38867
-1.74724 0.53724 -1.38619
-1.74350 0.44432 -1.38322
-1.73914 0.34929 -1.37976
-1.00552 -0.29997 -0.79774
-1.73415 0.25209 -1.37580
-1.72850 0.15261 -1.37132
-1.72218 0.05077 -1.36630
-1.71516 -0.05352 -1.36073
-1.70741 -0.16039 -1.35459
-1.69890 -0.26992 -1.34783
-1.68959 -0.38223 -1.34045
-1.67943 -0.49742 -1.33239
-1.05939 -0.44853 -0.84048
-1.04203 -0.37302 -0.82670
-0.99747 -0.44853 -0.91311
-1.07206 -0.54013 -0.85052
-1.66838 -0.61559 -1.32362
-1.65638 -0.73684 -1.31410
-1.64337 -0.86124 -1.30378
-1.08570 -0.75926 -0.86135
-1.08360 -0.70071 -0.85968
-1.02025 -0.70071 -0.93397
-1.08066 -0.64451 -0.85735
-1.08702 -0.81994 -0.86239
-1.02348 -0.81994 -0.93692
-1.62929 -0.98885 -1.29261
-1.02313 -1.01339 -0.93661
-1.61408 -1.11971 -1.28054
-1.08311 -1.15078 -0.85929
-1.08520 -1.08129 -0.86095
-1.01980 -1.15078 -0.93356
-1.02176 -1.08129 -0.93535
-1.08665 -1.01339 -0.86210
-1.59765 -1.25381 -1.26750
-1.08042 -1.22181 -0.85716
-1.57992 -1.39111 -1.25344
-1.07326 -1.36837 -0.85148
-1.56081 -1.53150 -1.23828
-1.54025 -1.67479 -1.22196
-1.05820 -1.59932 -0.83953
-1.05203 -1.67931 -0.83464
-0.99054 -1.67931 -0.90677
-0.99634 -1.59932 -0.91208
-1.51813 -1.82070 -1.20442
-0.95588 -2.57120 -0.75836
-0.90001 -2.57120 -0.82389
-0.96863 -2.47384 -0.76847
-0.98061 -2.37841 -0.77797
-0.99185 -2.28486 -0.78689
-1.00239 -2.19316 -0.79525
-0.94379 -2.19316 -0.86398
-1.01224 -2.10327 -0.80307
-1.02144 -2.01514 -0.81036
-0.96173 -2.01514 -0.88040
-1.03000 -1.92873 -0.81715
-0.97727 -1.84398 -0.89462
-1.03794 -1.84398 -0.82346
-1.04528 -1.76085 -0.82928
-0.98418 -1.76085 -0.90095
-0.50323 2.94356 -0.38207
-0.48233 3.02436 -0.36620
-0.45865 3.10419 -0.34822
-0.43187 3.18303 -0.32788
-0.40162 3.26084 -0.30492
-0.52162 2.86178 -0.39603
-0.53771 2.77898 -0.40825
-0.55170 2.69508 -0.41887
-0.56374 2.61001 -0.42801
-0.57397 2.52365 -0.43577
-0.58937 2.34657 -0.44747
-0.58248 2.43589 -0.44223
-0.59471 2.25553 -0.45152
-0.59854 2.16259 -0.45443
-0.60091 2.06756 -0.45622
-0.60182 1.97020 -0.45692
-0.60130 1.87027 -0.45652
-0.60049 1.81925 -0.45591
-0.59932 1.76749 -0.45502
-0.59777 1.71494 -0.45385
-0.59586 1.66157 -0.45239
-0.19243 3.62802 -0.11641
-0.16228 3.66171 -0.09055
-1.70312 2.06537 -1.16537
-1.79258 1.86214 -1.22658
-1.76875 1.95312 -1.21027
-1.73924 2.02291 -1.19008
-1.80262 1.81019 -1.23345
-1.81151 1.75454 -1.23953
-1.81933 1.69558 -1.24489
-0.59356 1.60732 -0.45065
-1.82616 1.63363 -1.24956
-0.59088 1.55217 -0.44861
-1.83206 1.56894 -1.25359
-0.58781 1.49604 -0.44628
-1.83707 1.50175 -1.25703
-1.84126 1.43223 -1.25989
-0.58434 1.43891 -0.44364
-1.84465 1.36053 -1.26221
-0.58045 1.38070 -0.44069
-1.84729 1.28675 -1.26401
-0.57614 1.32138 -0.43742
-1.84920 1.21100 -1.26532
-0.57139 1.26086 -0.43382
-1.85042 1.13333 -1.26615
-0.56620 1.19911 -0.42987
-1.85096 1.05379 -1.26652
-0.56054 1.13604 -0.42558
-1.85084 0.97239 -1.26644
-0.54777 1.00566 -0.41588
-0.55440 1.07158 -0.42092
-1.85008 0.88914 -1.26592
-0.54061 0.93820 -0.41045
-1.84867 0.80404 -1.26496
-0.53292 0.86912 -0.40460
-1.84664 0.71704 -1.26357
-0.52466 0.79831 -0.39833
-1.84397 0.62813 -1.26175
-0.51581 0.72569 -0.39161
-1.84067 0.53724 -1.25949
-0.50634 0.65115 -0.38443
-1.83673 0.44432 -1.25679
-1.05929 -0.29997 -0.72482
-1.83213 0.34929 -1.25364
-1.82687 0.25209 -1.25004
-1.82092 0.15261 -1.24597
-1.81427 0.05077 -1.24142
-1.01923 -0.31803 -0.80861
-1.07373 -0.31803 -0.73470
-1.80687 -0.05352 -1.23636
-1.79871 -0.16039 -1.23077
-1.78974 -0.26992 -1.22464
-1.09775 -0.37302 -0.75114
-1.77993 -0.38223 -1.21792
-1.76923 -0.49742 -1.21060
-1.75759 -0.61559 -1.20264
-1.13441 -0.59089 -0.77623
-1.07683 -0.59089 -0.85431
-1.74495 -0.73684 -1.19399
-1.73125 -0.86124 -1.18461
-1.14575 -0.88261 -0.78398
-1.14514 -0.81994 -0.78357
-1.14375 -0.75926 -0.78262
-1.08759 -0.88261 -0.86285
-1.71642 -0.98885 -1.17446
-1.14476 -1.01339 -0.78331
-1.14561 -0.94713 -0.78389
-1.08746 -0.94713 -0.86275
-1.70038 -1.11971 -1.16349
-1.68307 -1.25381 -1.15165
-1.14103 -1.15078 -0.78075
-1.66440 -1.39111 -1.13887
-1.13473 -1.29435 -0.77644
-1.07713 -1.29435 -0.85455
-1.64427 -1.53150 -1.12510
-1.12596 -1.44386 -0.77045
-1.13065 -1.36837 -0.77365
-1.06379 -1.52084 -0.84397
-1.06881 -1.44386 -0.84795
-1.59930 -1.82070 -1.09433
-1.62261 -1.67479 -1.11027
-1.12067 -1.52084 -0.76683
-1.11478 -1.59932 -0.76279
-0.97755 -2.77174 -0.66889
-0.94233 -2.67050 -0.74760
-0.92793 -2.77174 -0.73618
-0.99271 -2.67050 -0.67927
-1.02043 -2.47384 -0.69823
-1.03305 -2.37841 -0.70686
-1.04489 -2.28486 -0.71497
-0.91264 -2.87492 -0.72405
-0.96144 -2.87492 -0.65787
-0.94437 -2.97998 -0.64619
-0.89643 -2.97998 -0.71119
-0.87925 -3.08687 -0.69756
-0.92627 -3.08687 -0.63380
-0.90710 -3.19546 -0.62069
-0.86106 -3.19546 -0.68312
-0.84180 -3.30559 -0.66785
-0.88682 -3.30559 -0.60681
-0.86537 -3.41705 -0.59213
-0.84273 -3.52953 -0.57664
-0.82145 -3.41705 -0.65170
-0.79995 -3.52953 -0.63465
-0.81885 -3.64263 -0.56030
-0.77729 -3.64263 -0.61667
-0.25302 3.55849 -0.15307
-0.30629 3.48661 -0.18530
-0.57764 2.77898 -0.34947
-0.56036 2.86178 -0.33901
-0.54060 2.94356 -0.32706
-0.51815 3.02436 -0.31347
-0.49271 3.10419 -0.29808
-0.46394 3.18303 -0.28067
-0.43144 3.26084 -0.26101
-0.40287 3.33749 -0.22481
-0.36053 3.41283 -0.20118
-0.59267 2.69508 -0.35856
-0.60561 2.61001 -0.36638
-0.61659 2.52365 -0.37303
-0.61207 2.43589 -0.40029
-0.61931 2.34657 -0.40502
-0.62492 2.25553 -0.40869
-0.62894 2.16259 -0.41133
-0.63239 1.97020 -0.41358
-0.63143 2.06756 -0.41295
-0.63099 1.81925 -0.41266
-0.63184 1.87027 -0.41322
-0.62976 1.76749 -0.41186
-0.62814 1.71494 -0.41080
-0.62613 1.66157 -0.40948
-1.89443 1.75454 -1.10866
-1.88513 1.81019 -1.10322
-1.87464 1.86214 -1.09708
-1.81885 2.02291 -1.06443
-1.78109 2.06537 -1.04233
-1.84972 1.95312 -1.08249
-1.90261 1.69558 -1.11345
-0.62371 1.60732 -0.40790
-1.90976 1.63363 -1.11763
-0.62090 1.55217 -0.40606
-1.91592 1.56894 -1.12124
-0.61767 1.49604 -0.40395
-1.92117 1.50175 -1.12431
-1.92554 1.43223 -1.12687
-0.61401 1.43891 -0.40156
-1.92909 1.36053 -1.12894
-0.60993 1.38070 -0.39889
-1.93185 1.28675 -1.13056
-0.61892 1.32138 -0.37444
-1.93385 1.21100 -1.13173
-0.61383 1.26086 -0.37135
-1.93512 1.13333 -1.13247
-0.60825 1.19911 -0.36798
-1.93569 1.05379 -1.13280
-0.60217 1.13604 -0.36430
-1.93556 0.97239 -1.13273
-0.59558 1.07158 -0.36031
-0.58845 1.00566 -0.35600
-1.93476 0.88914 -1.13226
-0.58076 0.93820 -0.35135
-1.93330 0.80404 -1.13141
-0.57249 0.86912 -0.34635
-1.93117 0.71704 -1.13016
-0.56362 0.79831 -0.34098
-1.92838 0.62813 -1.12853
-0.55411 0.72569 -0.33523
-1.92493 0.53724 -1.12651
-0.54394 0.65115 -0.32908
-1.92081 0.44432 -1.12410
-1.10778 -0.29997 -0.64829
-1.91600 0.34929 -1.12128
-1.91050 0.25209 -1.11806
-1.90428 0.15261 -1.11442
-1.89731 0.05077 -1.11035
-1.88958 -0.05352 -1.10582
-1.88105 -0.16039 -1.10083
-1.14800 -0.37302 -0.67183
-1.87167 -0.26992 -1.09534
-1.12288 -0.31803 -0.65713
-1.86141 -0.38223 -1.08934
-1.16713 -0.44853 -0.68303
-1.85022 -0.49742 -1.08279
-1.11604 -0.44853 -0.76365
-1.12938 -0.54013 -0.77278
-1.83804 -0.61559 -1.07566
-1.18108 -0.54013 -0.69119
-1.13844 -0.64451 -0.77898
-1.82482 -0.73684 -1.06792
-1.14154 -0.70071 -0.78110
-1.81049 -0.86124 -1.05954
-1.79499 -0.98885 -1.05046
-1.19820 -0.88261 -0.70121
-1.19805 -0.94713 -0.70113
-1.77822 -1.11971 -1.04065
-1.14322 -1.08129 -0.78226
-1.19716 -1.01339 -0.70060
-1.19555 -1.08129 -0.69966
-1.19326 -1.15078 -0.69832
-1.76012 -1.25381 -1.03006
-1.13819 -1.22181 -0.77881
-1.19029 -1.22181 -0.69658
-1.74059 -1.39111 -1.01863
-1.18241 -1.36837 -0.69197
-1.71954 -1.53150 -1.00631
-1.17751 -1.44386 -0.68910
-1.17197 -1.52084 -0.68586
-1.69688 -1.67479 -0.99305
-1.15902 -1.67931 -0.67828
-1.10828 -1.67931 -0.75835
-1.67251 -1.82070 -0.97879
-0.92741 -3.30559 -0.54274
-1.00546 -2.87492 -0.58841
-1.03816 -2.67050 -0.60755
-1.05309 -2.57120 -0.61629
-1.00699 -2.57120 -0.68904
-1.10432 -2.19316 -0.64627
-1.05598 -2.19316 -0.72256
-1.11518 -2.10327 -0.65263
-1.06636 -2.10327 -0.72966
-1.07605 -2.01514 -0.73629
-1.12531 -2.01514 -0.65856
-1.08507 -1.92873 -0.74246
-1.10117 -1.76085 -0.75348
-1.15158 -1.76085 -0.67393
-1.09344 -1.84398 -0.74819
-0.90499 -3.41705 -0.52962
-0.85634 -3.64263 -0.50115
-0.64619 2.34657 -0.36058
-0.63864 2.43589 -0.35637
-0.65204 2.25553 -0.36385
-0.65625 2.16259 -0.36619
-0.65884 2.06756 -0.36764
-0.65985 1.97020 -0.36820
-0.65927 1.87027 -0.36788
-0.65710 1.76749 -0.36667
-0.65838 1.81925 -0.36739
-0.65541 1.71494 -0.36572
-0.65331 1.66157 -0.36455
-1.85018 2.06537 -0.91410
-1.88940 2.02291 -0.93348
-1.92147 1.95312 -0.94932
-1.94736 1.86214 -0.96211
-1.95826 1.81019 -0.96750
-1.96792 1.75454 -0.97227
-1.97642 1.69558 -0.97647
-0.65079 1.60732 -0.36315
-1.98384 1.63363 -0.98013
-0.64785 1.55217 -0.36151
-1.99024 1.56894 -0.98330
-0.64448 1.49604 -0.35963
-1.99569 1.50175 -0.98599
-2.00023 1.43223 -0.98824
-2.00392 1.36053 -0.99006
-0.64067 1.43891 -0.35750
-0.63641 1.38070 -0.35512
-2.00678 1.28675 -0.99147
-2.00886 1.21100 -0.99250
-2.01018 1.13333 -0.99315
-2.01077 1.05379 -0.99344
-2.01064 0.97239 -0.99338
-2.00981 0.88914 -0.99297
-2.00829 0.80404 -0.99222
-2.00608 0.71704 -0.99112
-2.00319 0.62813 -0.98969
-1.99960 0.53724 -0.98792
-1.99532 0.44432 -0.98581
-1.15075 -0.29997 -0.56854
-1.99032 0.34929 -0.98334
-1.98461 0.25209 -0.98052
-1.97814 0.15261 -0.97732
-1.97091 0.05077 -0.97375
-1.16644 -0.31803 -0.57629
-1.96288 -0.05352 -0.96978
-1.95401 -0.16039 -0.96540
-1.94427 -0.26992 -0.96059
-1.93361 -0.38223 -0.95532
-1.92199 -0.49742 -0.94958
-1.90934 -0.61559 -0.94333
-1.23674 -0.64451 -0.61102
-1.23236 -0.59089 -0.60886
-1.18634 -0.59089 -0.69427
-1.19055 -0.64451 -0.69674
-1.89561 -0.73684 -0.93654
-1.24251 -0.75926 -0.61387
-1.24010 -0.70071 -0.61268
-1.19611 -0.75926 -0.69999
-1.19379 -0.70071 -0.69863
-1.88072 -0.86124 -0.92919
-1.24402 -0.81994 -0.61462
-1.19756 -0.81994 -0.70084
-1.24468 -0.88261 -0.61494
-1.86461 -0.98885 -0.92123
-1.84720 -1.11971 -0.91263
-1.24193 -1.08129 -0.61359
-1.24360 -1.01339 -0.61441
-1.82839 -1.25381 -0.90334
-1.80811 -1.39111 -0.89331
-1.78624 -1.53150 -0.88251
-1.23270 -1.29435 -0.60903
-1.23646 -1.22181 -0.61089
-1.18667 -1.29435 -0.69447
-1.21744 -1.52084 -0.60149
-1.76270 -1.67479 -0.87088
-1.16581 -1.59932 -0.68226
-1.73739 -1.82070 -0.85837
-1.06195 -2.77174 -0.52467
-1.02229 -2.77174 -0.59827
-1.09394 -2.57120 -0.54047
-1.06714 -2.47384 -0.62451
-1.12224 -2.37841 -0.55445
-1.08033 -2.37841 -0.63223
-1.09272 -2.28486 -0.63948
-1.18785 -1.84398 -0.58687
-1.14349 -1.84398 -0.66920
-1.19625 -1.76085 -0.59102
-1.13474 -1.92873 -0.66407
-1.17876 -1.92873 -0.58238
-1.16896 -2.01514 -0.57754
-1.15844 -2.10327 -0.57234
-1.14716 -2.19316 -0.56677
-0.96867 -3.08687 -0.56688
-0.98760 -2.97998 -0.57796
-0.94862 -3.19546 -0.55515
-0.88131 -3.52953 -0.51576
-0.27586 3.55849 -0.10654
-0.33394 3.48661 -0.12897
-0.43037 3.33749 -0.16622
-0.38514 3.41283 -0.14874
-0.45649 3.26084 -0.21422
-0.49087 3.18303 -0.23036
-0.52131 3.10419 -0.24464
-0.54823 3.02436 -0.25727
-0.65238 2.52365 -0.30615
-0.64076 2.61001 -0.30070
-0.62708 2.69508 -0.29427
-0.61118 2.77898 -0.28681
-0.59289 2.86178 -0.27823
-0.57199 2.94356 -0.26842
-0.66206 2.43589 -0.31069
-0.66990 2.34657 -0.31437
-0.68032 2.16259 -0.31926
-0.67596 2.25553 -0.31721
